# .PCD v0.7 - Point Cloud Data file format
VERSION 0.7
FIELDS x y z
SIZE 4 4 4
TYPE F F F
COUNT 1 1 1
WIDTH 1515
HEIGHT 1
VIEWPOINT 0 0 0 1 0 0 0
POINTS 1515
DATA ascii
4.2371912 1.5622392 -1.5560024
5.0267839 -0.59201652 1.0085303
5.3148274 0.60459381 -1.3149785
5.5602303 0.4454557 -0.3304503
5.6080194 0.0110524 -0.32467991
4.9302111 -0.66678238 1.0848179
4.8370504 -0.66455537 1.022339
5.5356269 0.75551307 -0.2921491
4.4922228 0.60356772 1.2491761
4.2374744 1.5666553 -1.5615013
5.7776775 0.54417342 1.1630157
4.6773982 0.61945868 1.1937953
5.5832577 0.44121459 -0.26779461
5.3991766 0.89482647 -0.87549621
5.4139428 0.75484937 -0.72878033
5.2797403 0.39672959 -1.5907049
5.4278049 0.77217108 -0.78903937
5.3519006 1.1554528 -0.92005152
5.4101629 0.75062323 -0.72717828
5.443747 0.76630712 -0.71864122
5.5749159 0.31743729 -0.55135041
3.2562914 0.71146232 -2.8603158
5.6036611 -0.098693199 -0.28682679
5.3668432 1.1630027 -0.92360502
5.4527969 0.76857972 -0.71858418
3.2285099 1.0078862 -2.1599054
5.4711914 0.77145481 -0.72370672
5.4258571 0.85152698 -0.76191378
5.6602592 1.1603506 -0.87712991
3.2763126 0.67098558 -2.7851782
5.4157739 1.0584136 -0.77785331
3.3600473 0.66586977 -2.7983203
5.5949955 0.36876211 -0.36251259
5.5411043 0.68864751 -0.43423831
5.3815942 1.2799679 -0.68269181
5.4123445 1.1383581 -0.58310598
5.4363394 1.1498612 -0.58136338
5.4799271 0.98376262 -0.47258821
5.4172177 1.1405811 -0.58215177
2.4227412 0.49219421 1.3459121
2.6707239 0.52035117 1.363402
4.6697202 -0.2480779 1.5350153
4.786293 0.45078319 1.4813458
4.7721691 -0.20187721 1.4675984
4.5651836 -0.1728023 1.504966
4.8121347 -0.3356483 1.5026758
4.7772851 0.44221121 1.4633323
1.5547559 0.4296039 1.512398
1.2940685 0.39021671 1.5492065
4.4624286 -0.35287961 1.6444426
3.9421415 -0.2581498 1.6514267
4.3493509 0.2840921 1.7139697
4.073411 -0.38429719 1.771286
4.3606119 0.29825321 1.7699928
3.9600594 -0.36890569 1.8905628
1.9294074 -0.92089361 2.080019
1.022761 -0.50504571 2.4076104
5.3360147 0.52572137 -1.2406732
5.3524466 0.50286001 -1.2458141
5.3906884 0.2531985 -1.1096137
5.4575572 0.26253489 -1.1264759
5.2668796 0.90405703 -1.3865123
5.3167319 0.72468442 -1.1957799
5.3925304 0.36443409 -1.0602598
5.4970765 0.1917645 -0.95372552
5.3644533 0.45783871 -1.0904037
3.3513231 0.67621952 -2.8014808
5.3583741 0.4570764 -1.087826
4.0898895 1.5679529 -1.5311215
5.2177863 1.2091719 -1.3984554
5.034462 0.51833868 -2.4487057
3.1166615 0.63000232 -2.7206733
5.3586593 0.51698101 -0.97412032
5.4403243 0.3130714 -0.94626433
5.2595139 1.2230489 -1.2525623
5.3693519 0.68300188 -1.0919759
5.5506325 0.60306078 -0.26875669
5.5914841 0.52216607 -0.2381465
5.5865011 0.59096187 -0.2170431
5.6231666 0.019778 -0.133826
5.567472 0.87088382 -0.1749384
5.6102247 0.39148441 -0.22332311
5.5373106 0.89479858 -0.23425619
5.5728698 0.78969878 -0.2004959
5.5808749 0.41246811 -0.2184217
5.5812087 0.41419971 -0.2169251
5.5768833 0.79136717 -0.1993694
5.587522 0.55624741 -0.1035114
5.5404763 1.0036522 -0.1868553
5.3180389 0.30548581 -1.3702258
5.5907693 0.68596113 -0.1123212
5.5844407 0.57449043 -0.1511419
5.8434677 0.56564522 1.1048381
4.3809681 0.59137982 1.2584471
4.3782525 0.59443289 1.2461944
2.6693881 0.52396947 1.3580824
5.6413527 0.55221671 1.2592103
5.613349 0.54349709 1.2234988
5.3274274 0.49487761 1.2913105
5.33565 0.49979931 1.296854
5.3272047 0.49919879 1.2934424
5.6434216 0.54954231 1.2656698
4.8264647 0.4763073 1.4662639
5.0599494 0.4904075 1.4122772
3.7743664 0.3836675 1.5676903
4.5301962 -0.19695529 1.5396649
4.6123991 -0.1797791 1.5081693
4.6723132 -0.1919163 1.5311167
4.7080703 -0.17809241 1.4962043
4.6519518 -0.25352901 1.5683692
3.8561447 -0.27840391 1.6422509
4.7777863 -0.20941781 1.5081513
4.5716419 -0.1906219 1.5261953
4.3582726 -0.1990868 1.4073468
3.9938204 -0.2669971 1.6496561
3.8568032 -0.27944821 1.6588578
3.9416101 -0.2541838 1.632687
4.628262 0.3259784 1.703909
3.8641276 -0.38417491 1.7872012
4.0662851 -0.39118481 1.7356913
4.673131 0.33236521 1.6899928
4.0281291 -0.33134469 1.6295969
4.4970341 0.3120828 1.7469271
3.8784549 -0.3173568 1.6427363
3.8720155 0.263787 1.8818098
3.9137585 0.2418191 1.8450449
3.8635278 -0.36615461 1.5148895
5.6332211 0.5610342 -0.0507732
5.7157869 -0.17133971 -0.1021506
4.3016281 1.5850741 -1.5989479
5.6040797 0.69008768 -0.1046602
5.6154642 0.56503308 -0.056511201
5.5903559 0.86690772 -0.075211301
5.6238008 0.57473278 -0.054076999
5.5769176 0.86014682 -0.081540599
4.9245453 0.92839688 0.43109959
5.5519886 0.85042012 -0.089924902
5.7344561 -0.22506779 -0.0264364
5.6132975 0.77319539 -0.0404437
5.6093707 0.39719909 0.0113131
4.2313251 1.5521172 -1.5530645
5.6726718 0.0602105 0.096414
5.2977166 0.55984801 -1.3624914
5.6452832 0.38432989 0.1574408
5.6385736 0.57800978 0.18732931
5.6461425 1.0341643 0.1452049
5.6138248 0.9921419 0.1438832
4.8466334 1.4539363 -0.92734021
5.2512169 0.68964481 -1.4273729
3.7699792 0.39410749 1.5952686
5.565629 0.92536849 0.30774289
5.5908709 0.94067639 0.31359029
5.7876759 -0.26274419 0.34022599
3.877898 -0.43635401 1.8526962
5.5072427 0.31884301 -0.95811838
3.9182379 1.0280019 -2.3661826
5.3562474 0.51733482 -0.97126389
4.0851321 1.5615598 -1.527511
5.2240758 1.1906811 -1.2366277
4.212007 1.5739311 -1.5621276
3.1257524 0.85680151 -2.2212949
5.4619074 0.3419219 -0.90556872
5.0416131 0.50257617 -2.4879775
5.3787231 0.43612391 -1.1035752
5.0716381 0.61805153 -2.2803771
3.6595852 0.912045 -2.363951
5.5333643 0.31465939 -0.55207872
5.2801061 1.2658775 -1.1769646
5.4095464 0.61197013 -0.91950577
5.5632296 0.1223567 -0.66933572
5.5341673 0.1193896 -0.66872638
5.2893295 1.2757399 -1.177623
5.3774829 0.80367309 -0.96296197
5.0647607 0.62625778 -2.3640952
5.2358084 1.4843106 -1.2221264
5.2992716 1.2778161 -1.1126322
5.1505809 1.4108015 -1.2228998
5.4138327 0.71297199 -0.88228142
3.3314514 0.50191921 -2.9142044
5.5666795 0.1220548 -0.66942871
3.2262018 1.0117046 -2.161402
5.3117404 1.2005287 -1.0792016
3.3656504 0.57062298 -2.9045908
5.4502554 0.497309 -0.78823853
5.4998875 0.53624833 -0.83179718
5.6607289 0.86929578 0.41150361
4.6720529 0.62021297 1.1890228
4.4204526 -0.2886312 1.6603365
4.1818442 -0.31036299 1.6563241
5.8754396 -0.43284479 0.5198977
5.9367833 -0.77976012 0.68106562
5.929369 -0.77862853 0.67510003
5.6902328 -0.49919131 0.86972362
4.4560022 -0.3476209 1.6235708
5.9220343 -0.40467119 0.62108809
4.3569226 -0.2996029 1.7450652
4.6002169 -0.26527601 1.6234097
5.9205232 -0.2239019 0.89368218
5.9362378 -0.2302884 0.90767789
5.8590326 0.61635208 1.0776759
5.8107352 0.63921732 1.0260409
5.8665476 0.0545647 1.0282364
5.1069798 0.72627431 -1.8561168
4.4541073 1.7698984 -2.0563228
5.0875063 0.64247239 -2.134022
3.3515615 0.55134958 -2.8898056
5.159061 0.7633996 -1.873239
5.1555557 0.74916339 -1.8742944
5.399508 0.86389422 -0.88383102
3.456605 1.0730306 -2.2145464
5.0331473 0.57489657 -2.4922519
3.3421099 1.6284382 -1.8005164
5.1823258 0.91794479 -1.4731107
5.2228923 0.94503969 -1.5018876
5.1146135 0.7734713 -2.130991
5.1186719 0.77571791 -2.1334004
5.0761852 0.74308437 -2.2399268
3.3442264 0.55741107 -2.8869698
4.8084059 1.6796505 -1.5515065
4.805635 1.6776175 -1.5491322
4.8216329 1.6881752 -1.555732
5.0381651 0.3510423 -2.5865705
3.4541454 1.0576802 -2.1843431
3.0133576 0.86443079 -2.2536051
5.0659361 0.53165507 -2.3025086
4.0330677 1.551334 -1.5151923
5.3172073 1.1826926 -1.0393564
5.0141225 0.62037092 -2.5450144
2.8555698 1.9472169 -2.4012363
3.0313604 1.0163778 -2.0744605
5.0558519 0.55750442 -2.455502
5.05056 0.34388229 -2.4456365
3.4513507 0.92266452 -2.4212761
3.5093062 1.67286 -1.8552955
4.2131047 1.5676484 -1.5646729
3.4915235 1.743458 -1.9034612
5.0650163 0.42971781 -2.4231987
3.5937035 1.6547623 -1.8664411
5.1459069 0.75962782 -1.8579009
3.8190432 1.6917915 -1.8971999
3.8247132 1.7139057 -1.9185765
5.1078601 0.93925798 -2.058352
3.3285677 0.59788322 -2.8336287
3.3417852 0.65811831 -2.8072538
5.3459902 0.62637198 -1.1014144
5.3276663 0.72701132 -1.2014585
3.2784588 0.70159823 -2.8100095
5.4622951 1.1591287 -0.58388633
5.9500165 -0.48021221 0.77108198
5.8667421 0.052772999 1.0265238
5.0739584 0.62487912 -2.3582995
2.7512593 2.0414245 -2.5747526
2.8754921 2.0102663 -2.571733
2.6155653 2.0759692 -2.6694515
5.1517839 1.4504199 -1.6799476
4.986196 0.65985411 -2.5737336
2.7478449 2.1326413 -2.8094039
5.0549941 1.2917866 -2.0918882
2.7428176 2.1129105 -2.7924545
2.7661414 2.1012216 -2.6268048
5.005054 0.52457148 -2.6461291
3.9203537 1.5867026 -1.6197654
2.8451467 1.9348741 -2.4044242
5.1148005 1.1236908 -1.9632967
3.335819 1.6176655 -1.7949747
4.8037896 1.6806648 -1.5467647
5.0767403 1.0465301 -2.1797376
5.0079851 1.0835421 -2.544837
5.0923777 1.3337705 -2.0053349
4.9488859 1.0257218 -2.7184827
5.0869718 1.3345612 -2.007036
4.9918756 1.0756074 -2.5259204
5.1429315 1.3488896 -1.550193
4.9874682 1.0675435 -2.5163836
5.2578802 1.5139227 -1.283285
5.0749164 1.1958475 -2.1277664
5.0823312 1.327229 -2.0018778
5.076633 1.2420074 -2.0373888
5.1106334 1.2817452 -1.8941669
5.1390262 1.4431545 -1.675938
5.075695 1.2406641 -2.0328767
4.9988728 1.2242359 -2.4554605
5.0107827 1.0901275 -2.5471239
5.0784121 1.3310572 -1.9993908
5.0867505 1.3255068 -2.0001538
5.0625582 1.670305 -1.9355626
5.0609374 1.6679391 -1.9355986
5.0716171 1.6845859 -1.9428256
5.0644617 1.6715713 -1.9345443
3.8534067 1.7040349 -1.8818115
3.816787 1.7267456 -1.9177452
4.0774779 1.6090872 -1.7126828
3.8064468 1.6925908 -1.9006184
3.8128676 1.7368575 -1.9200571
3.0347741 1.0120956 -2.073581
2.9856339 0.87467748 -2.2940619
5.103941 0.65889251 -2.1419442
5.0400047 1.0322895 -2.1739967
5.0516415 0.44011021 -2.4172173
5.0128012 0.61425239 -2.5468965
3.9901838 1.541111 -1.5379063
3.1037731 0.84137082 -2.1993973
5.0816031 0.73830682 -2.2401779
4.0643835 1.7376994 -1.958621
5.0611796 0.62030989 -2.3528304
5.0785069 0.81202263 -2.2346392
5.0635347 0.62094098 -2.3575153
4.0565991 1.7476902 -1.957278
5.0235705 0.34149939 -2.4282994
5.0120487 0.4123764 -2.6892478
4.7605333 1.6466095 -1.6805418
4.0739689 1.5517857 -1.5273818
3.34428 0.6569562 -2.8052537
5.0073123 0.52154511 -2.6473205
4.2225351 1.5752841 -1.5639704
5.0662189 1.0377189 -2.17907
4.3285394 1.7505569 -2.0158296
4.3189192 1.7459798 -2.0138552
5.0682588 1.1765039 -2.1317294
3.0235884 0.83635062 -2.1795621
4.9896703 0.3406142 -2.5550663
4.9640765 0.58126271 -2.8965073
5.0724511 1.6689241 -1.6669393
5.0055141 0.60496378 -2.325037
5.1043849 1.7244194 -1.6953764
5.0769019 0.89197129 -2.145009
4.9518805 0.61149502 -2.873543
4.9575443 0.57324278 -2.8886545
4.9543099 0.56981522 -2.8843124
5.068933 0.62830019 -2.3667791
5.0717425 1.5719 -1.9826894
5.0689635 1.5660642 -1.9756157
5.072402 1.5686549 -1.981782
4.7182713 1.0569562 -2.8206632
4.9777837 1.0594289 -2.5052624
5.0684676 1.5828432 -1.9613215
4.7309351 1.0178336 -2.6993184
4.9423666 0.89613211 -2.847039
3.8982043 2.4736733 -3.6721842
3.9074526 2.4531865 -3.7118709
3.9584117 2.361093 -3.3150387
3.9483256 2.3591702 -3.3160617
4.1644573 2.0507925 -4.065331
4.2170348 1.8152424 -4.0852318
3.9382436 2.4887769 -3.7222216
4.9287353 0.52031481 -3.0401402
4.9468966 0.46039131 -2.9291942
4.2173915 2.3912396 -3.7953098
4.1848617 2.3676407 -3.7811649
5.0634875 1.5739381 -2.024976
5.0308638 1.6326438 -2.1394372
4.2075601 1.5681772 -1.5644742
4.5458374 1.5920873 -1.281607
4.9917936 1.2276442 -2.4468644
4.7674398 1.0418053 -2.7375643
4.9305949 1.774464 -2.1878233
4.9517875 1.0331281 -2.7231946
4.9398599 1.0222125 -2.7184992
4.9396038 1.0220886 -2.7119696
4.7136998 1.0573614 -2.8160198
4.9364295 0.9097032 -2.82514
4.9305272 1.0221071 -2.836622
4.9647284 1.7756746 -2.1935229
4.966445 1.7846042 -2.1968517
4.8594661 1.1143101 -2.9566329
4.8705788 1.1242437 -2.9689515
4.0076303 1.5474958 -4.7751722
4.6575713 1.6185604 -4.1087213
4.0222754 1.6175224 -4.9456625
4.0820475 1.48149 -4.714417
4.1152864 1.4854643 -4.7492657
3.9913769 1.5602391 -4.7228098
3.9853318 1.6111385 -4.7980204
4.1118879 1.451829 -4.6741452
4.3826866 1.1419924 -5.1270742
5.0146036 0.82534993 -2.4767809
4.9951954 0.85039598 -2.5751688
5.0149007 0.39171931 -2.6915295
5.1622009 1.4735297 -1.9218067
2.5271196 1.9482515 -2.459666
4.9915729 0.85149401 -2.5716259
5.096909 1.5390742 -1.8658727
4.2378836 1.7417854 -2.0021474
5.1039577 1.4618932 -1.9684584
3.3438759 0.48582861 -2.9334834
4.3111191 1.7416345 -2.0183468
4.9534202 0.61350769 -2.875155
2.5326469 2.0193059 -2.5112023
4.9975967 0.69670671 -2.2887752
4.7777252 1.1337601 -2.548789
4.9161968 0.80368102 -2.7505465
5.0445628 1.5553179 -2.0165541
5.0314832 1.2748264 -2.2956452
4.9337349 0.88889521 -2.8322043
4.963397 1.039824 -2.6415675
4.9227986 0.7969355 -3.0083249
4.9386506 1.024161 -2.7134717
3.0172205 0.87078857 -2.266674
4.9910617 1.4895866 -2.3407609
5.0276809 1.6276708 -2.136306
4.9267979 0.78951693 -3.0198133
5.0370364 1.6323783 -2.1423843
5.0339332 1.6333892 -2.1402929
5.0022702 1.4348257 -2.3723261
4.7184782 1.0683475 -2.8256989
3.0282295 0.88051432 -2.2619057
5.0099597 1.5257586 -2.3490891
4.7214842 1.0610678 -2.8221788
3.2401159 0.46908519 -2.9153881
4.8791914 1.128181 -2.9852853
4.7951217 1.4653462 -3.5415874
4.7901778 1.4638693 -3.541065
4.6497297 1.615984 -4.1057076
4.2200756 1.4436815 -4.5349298
3.9666445 1.4982319 -4.6746192
4.0685897 1.8195171 -4.384088
4.1293578 1.4479657 -4.6730881
4.9522767 0.4611482 -2.9257841
4.9815135 1.0681018 -2.5230608
4.9895005 1.5205086 -1.9487373
5.0609627 1.6629717 -1.9366384
2.9505355 0.95435041 -2.4632874
3.0596535 0.86568481 -2.2151401
4.7795377 1.0447111 -2.7469263
4.9416051 1.0222962 -2.7209032
2.9422073 0.9674325 -2.4748034
4.7674489 1.0440441 -2.7392383
5.0819669 1.5845696 -1.9634281
4.0856099 1.2676686 -0.59764367
3.5699573 1.3956425 -0.91325748
2.9975624 0.93792129 -2.3938098
3.0112836 0.46838951 -2.8128846
2.2096908 2.3556423 -3.424859
4.9839573 1.4774439 -2.3388743
4.1151161 1.8081986 -4.469245
5.0642109 0.43492991 -2.425364
4.946135 0.68282562 -2.9534466
4.9378762 0.8865751 -2.8353333
3.0112214 0.87736481 -2.2671487
4.9618073 0.9349333 -2.8278606
4.9053288 0.48773971 -3.1558139
4.9205389 0.48531401 -3.1709914
4.9275918 0.49085441 -3.1756625
4.9066691 1.1455994 -3.0184965
4.7303452 1.6063699 -3.6299386
4.7328777 1.611532 -3.6399536
4.271812 1.321 -4.2101626
4.2535496 1.3068759 -4.1893554
4.0523386 1.6619847 -4.8742099
4.052207 1.6631598 -4.8819528
3.0124576 0.66089511 -2.7249918
2.6083417 -0.3078379 2.092782
0.32794771 0.4656221 1.3612745
0.34891021 0.429533 1.4466522
1.8069925 0.0168812 2.2502699
2.7408788 0.092228599 2.2932496
1.7484548 0.2851637 1.9049127
2.7125318 0.1519485 2.2004719
0.3241463 0.39797151 1.5048293
0.3301681 0.38179219 1.5236213
1.9189836 -1.3184189 1.9202646
1.0721841 0.30572259 1.7843187
1.0775934 0.287431 1.7078744
1.468058 0.20322999 2.0226433
4.4531612 1.3034525 -0.55894101
4.6718678 1.9192079 -3.5722039
4.6768985 1.9308962 -3.5772707
4.9076152 0.60317397 -3.0624955
2.9410231 0.95897311 -2.4615307
4.9460421 0.38139021 -3.0278831
4.2781692 1.338196 -0.67325741
4.3799124 1.2102604 -0.42973331
4.4040761 1.2206479 -0.41133589
4.39288 1.2095674 -0.43476859
4.4480143 1.3000267 -0.57089663
4.9028177 0.78061968 -3.0023129
4.2357264 1.2155571 -0.4127692
4.94418 0.57809871 -2.8854361
2.953104 1.2011398 -2.3938994
2.9488819 0.95661992 -2.4709611
4.1075902 1.2745533 -0.5766058
4.0847011 1.3045349 -0.65733278
3.5515628 1.4971026 -1.402687
4.7552238 1.6967944 -3.4544759
2.971848 0.93486822 -2.4134705
2.9818015 0.92332458 -2.3914325
4.103466 1.2753744 -0.57423222
4.7263937 1.775503 -3.5370464
4.918488 0.74725229 -2.9469993
3.492918 1.0887947 -2.2259028
3.4715798 1.0763439 -2.2048659
4.8721933 1.1323017 -3.0067842
4.654304 1.6199676 -4.1111937
4.6689339 1.6286167 -4.1116095
2.968164 0.93514162 -2.4167712
4.0305724 1.3872281 -0.80115497
3.7179897 1.5164951 -1.43969
4.2349977 1.3229448 -0.6955502
4.7654066 1.6326443 -3.6422241
4.3980947 1.2885575 -0.6005379
2.955467 1.205173 -2.3947377
4.4242406 1.3640835 -0.76200289
4.1382318 1.5850921 -1.3165591
3.7879076 1.6710678 -1.9011393
4.4225712 1.4539338 -0.94687903
4.6968474 1.6481365 -3.4261684
5.3703942 0.035062999 -1.3596064
5.3657694 0.0306227 -1.3604771
5.3292103 0.0615629 -1.4786443
5.322576 0.1529469 -1.4453808
5.37673 0.0282137 -1.3592589
5.3933139 0.2729162 -1.0957844
5.3986101 0.3596566 -1.0608821
5.3005681 0.18912239 -1.5095966
4.9161563 0.78529602 -2.9969914
4.7030034 1.9674997 -3.4524231
5.2704186 0.27253649 -1.6298232
4.9004607 0.82643652 -3.0006855
5.2905231 0.2501646 -1.5643622
4.9293666 0.74869072 -2.9437225
4.8940654 0.4869557 -3.1590331
5.4389615 0.77322119 -0.79110289
4.6214523 1.8824487 -3.5603223
5.2339249 0.3142952 -1.7543298
4.7294021 1.617213 -3.6471536
4.7129545 1.5959251 -3.8072779
4.198905 2.3818963 -3.7903543
4.7100663 1.5852038 -3.8087854
4.3875051 2.3086383 -3.8619251
4.7326078 1.7917434 -3.6146579
4.6636219 1.6227077 -4.1088624
4.626318 1.7365223 -3.5908816
4.7911029 1.470515 -3.5434563
4.7216749 1.7929758 -3.6360526
4.7229829 1.583032 -3.8138609
4.8026948 1.5664587 -3.1394627
4.8250079 1.5105518 -3.3535166
4.8037238 1.4725009 -3.5418832
4.779501 1.4598604 -3.5334535
4.7061467 1.7849432 -3.6311877
4.7320137 1.6206079 -3.6509714
4.7407722 1.6069171 -3.81144
4.5821095 2.4654398 -3.8067703
4.7925315 1.4836738 -3.5384612
4.7508702 1.6940631 -3.454505
4.8165855 1.6379055 -3.2512589
4.9212079 0.72229528 -2.9041395
4.5304499 2.4407165 -3.8016644
4.852654 1.5416181 -3.1993759
4.8177557 1.6375579 -3.2516775
4.7021818 1.9580573 -3.4519234
4.4381289 2.2251081 -3.3755004
4.6060901 2.1718497 -2.841917
4.5598583 2.4639776 -3.8095794
4.7607732 1.7025241 -3.4532216
4.8787227 1.3537023 -3.2754741
4.8026991 1.5793662 -3.1253967
4.8796792 1.3727632 -3.257221
4.8171539 1.6382841 -3.2498145
4.7007556 1.9591941 -3.4488871
4.7509303 1.6100241 -3.8129723
4.7318201 2.2139053 -2.8705258
4.6316056 2.3323481 -3.3928595
4.5668063 2.3223226 -3.499258
4.6966896 1.9559299 -3.4487033
4.8552561 1.6673266 -3.2550721
4.6945701 1.9609314 -3.4474971
4.7126203 1.9698468 -3.4493139
4.6072512 2.3454437 -3.4968927
4.8792067 1.3573556 -3.2734628
5.2281747 0.3468723 -1.8117354
5.0670691 0.41941971 -2.4285424
5.2825284 1.0694363 -1.2570844
5.3162031 0.81281447 -1.225486
5.3269401 1.0044593 -1.1124295
5.0753918 0.73445672 -2.2384477
5.2798662 1.0622599 -1.2619807
5.2197361 0.94333082 -1.5051106
5.1142154 0.67253351 -2.1399968
5.1796036 0.98126161 -1.6835368
5.2135386 0.94045949 -1.5032897
5.2999339 1.2796353 -1.1136332
4.9699407 0.58342391 -2.9028964
4.9004483 0.7902059 -2.989471
5.2278948 1.2119141 -1.4089643
5.1826477 0.97926718 -1.6836625
5.2244616 1.2073642 -1.408787
5.0534153 1.0428138 -2.1785247
5.2504997 1.4769526 -1.2709973
5.1335354 1.7143667 -1.6603193
5.0563569 1.5964261 -1.9456528
5.4702859 -0.68809521 -1.2894859
5.424293 -0.45954651 -1.2151356
2.9442494 1.2354954 -2.3372672
4.6871963 1.9332993 -3.576654
4.8678317 1.3630685 -3.268995
5.314712 -0.1777485 -1.6821471
5.3018656 -0.1187352 -1.7238269
4.9621549 0.33139691 -2.9843645
5.2647624 -0.1060574 -1.8919028
4.942461 0.4600924 -2.9289594
5.4431562 -0.33194771 -1.155332
5.3189435 -0.1004692 -1.6541591
4.7776728 1.5628915 -3.5005701
4.9116054 0.52548742 -3.0453341
5.2082701 0.34562939 -1.8084687
5.287375 0.1473581 -1.6134906
4.9541802 0.70614117 -2.7667446
5.0775075 0.4173618 -2.3604906
5.0236282 0.3942762 -2.688895
5.4312534 -0.1745944 -1.0933291
5.4506974 0.1132121 -0.97383302
5.1535225 0.32616651 -2.1175277
5.34795 -0.1416764 -1.5436039
5.4345126 0.0929038 -0.98258859
4.7721634 1.6707454 -3.410063
4.7970009 1.3242272 -2.8769372
4.7308745 1.9276799 -3.3541148
5.0062604 0.52640867 -2.6454318
4.9100771 1.0077354 -2.9042318
4.8077188 1.3308651 -2.8664441
4.6283026 2.1720662 -2.8682199
4.8556261 1.1520437 -2.9280031
4.9529319 0.70437181 -2.769289
4.933321 0.92709291 -2.8112979
4.9483395 0.9248296 -2.8060207
4.8526144 1.3879138 -2.9238715
4.8110223 1.652503 -3.2609091
4.9358354 1.0238659 -2.7199807
5.0249395 0.52851188 -2.6347384
4.7910628 1.7767601 -3.1940763
5.4340835 0.51726478 -0.8255856
5.4648209 0.096020401 -0.9700532
5.0933633 1.0459946 -2.0485966
5.1984878 0.93701798 -1.5101737
5.3095355 0.71044719 -1.2694978
5.5261283 0.31533849 -0.55451858
4.7129574 1.780789 -3.623312
5.4410253 0.67169237 -0.76703262
4.7603703 1.7008352 -3.4571431
4.821537 1.5069243 -3.3597577
5.4517336 0.66013521 -0.7664541
5.1527905 1.1733061 -1.6586602
5.243259 0.95202488 -1.4941515
5.4612532 1.0753753 -0.60307431
5.5607004 0.89219737 -0.22100981
4.9476094 0.5883618 -2.8811789
4.7223344 1.5766439 -3.8151186
5.3060932 0.69707429 -1.2793802
4.8255858 1.5121038 -3.3640862
4.7375793 1.9793508 -3.4495974
4.6231151 2.3675909 -3.5050302
5.5716543 0.14573561 -0.4360024
5.3285422 0.98592317 -1.10952
4.7457404 1.6277115 -3.6534431
5.5498209 0.89168578 -0.2295254
4.8872495 2.5253894 -3.5932767
5.3585868 -0.58041888 0.92089897
0.55752808 0.47241059 1.3696005
1.9247683 -1.3177764 1.9176793
1.3793219 0.46429369 1.369666
1.9167656 -1.0807631 2.0144069
1.7272722 -0.34770471 2.2371886
1.4080904 0.37861741 1.626743
4.8332653 -0.41328609 1.1842083
1.9106312 -1.011816 2.0513506
1.4658346 -0.40613931 2.2871614
4.7935791 1.5215815 -3.3990707
4.7724538 1.7231705 -3.3882022
4.8066254 1.5167376 -3.3932273
4.7751427 1.7369987 -3.3386877
4.9166546 0.52492738 -3.0421743
4.9923835 0.3184281 -2.9728289
4.8278418 1.5112439 -3.3538356
4.8297133 1.5091367 -3.3504546
4.8734241 1.3557009 -3.2759817
2.6496625 0.60320109 1.1626607
5.0549002 0.62908357 -2.3448179
4.8667154 1.4007398 -2.9126008
4.6458483 2.0657949 -2.5950623
4.662868 2.0753515 -2.5791376
4.9098167 1.0747645 0.037471998
2.8626075 0.67060453 1.0057467
4.9675903 0.46572879 -2.9168627
4.8187194 1.6398323 -3.2498763
4.9090481 0.82692862 -2.9986403
3.6748953 0.84510398 0.58023322
4.8464317 1.1284984 -2.9417188
4.9566832 0.57733327 -2.8846962
4.9438353 0.61204833 -2.880213
4.869688 1.1579119 -2.9314027
4.8470306 1.1281008 -2.9416888
2.5609951 0.60862261 1.0826988
4.8478646 1.1278511 -2.9459038
4.8194098 1.0448368 0.1255381
4.9091306 0.99641949 -2.9409668
4.8035607 1.7820718 -3.194382
2.5600188 0.60838741 1.0754917
4.95929 0.70761251 -2.7666559
4.855103 1.4079521 -2.9185069
5.0639644 0.12518869 -2.661257
5.024662 0.41310021 -2.6790702
5.5180006 0.1440088 -0.46794659
5.0304141 0.40969759 -2.6740961
2.5377038 0.58564109 1.1730573
4.9444876 1.0001231 -2.7738223
4.9568925 0.70234358 -2.7685931
5.0406561 0.40394169 -2.6688347
5.0446515 0.17357621 -2.5212984
5.0122151 0.62020409 -2.5562596
4.9410605 1.0247686 -2.7189069
2.7866645 0.59641439 1.1338885
4.6536236 2.0686777 -2.5876403
4.9893785 0.84530753 -2.5676794
5.0139456 0.52224338 -2.6398129
5.0133867 0.61008292 -2.6039479
5.0368805 0.36003301 -2.4793401
5.0895839 0.43102139 -2.4069364
5.0313072 0.57636207 -2.4961331
2.539434 0.53047109 1.339937
5.0752616 0.42075989 -2.3672211
5.0633535 0.42103851 -2.3768268
5.0584683 0.6226483 -2.3594604
5.0898485 0.40933809 -2.3553431
5.0810437 0.620691 -2.3386073
5.1842289 0.084730402 -2.0995457
5.0788479 0.6717394 -2.1669664
5.5976071 -0.39091009 -0.48012
5.0635982 0.74092919 -2.2501926
5.0798855 0.74010599 -2.236448
5.0956092 0.90087849 -2.0545614
5.2435856 0.1399208 -1.9218202
5.5851426 -0.20416769 -0.463018
5.5576062 0.1496529 -0.43905309
5.129828 0.74202561 -1.9038945
5.5907507 -0.2199434 -0.40299851
3.5189044 -0.99834043 0.32027969
3.5382202 0.83686161 0.56213182
0.2912249 0.39308521 1.545849
4.2495122 0.86180991 0.2496402
3.6578269 0.84944838 0.46353549
3.5290246 -1.0084456 0.33727729
1.913254 -1.2450397 1.9415318
5.5393667 -0.066311702 -0.30466869
1.4376074 0.41348821 1.4805058
2.7189012 0.67818272 0.93243128
2.9478972 0.7298255 0.8031019
2.9463971 0.73117411 0.80840439
5.2037711 0.79956251 -1.7211479
5.3261023 -0.2530928 -1.660902
5.3059216 -0.12540241 -1.5850705
5.1989288 0.61994088 -1.8048296
5.1698837 0.87188947 -1.7296255
5.183599 0.86597627 -1.7154855
5.2678313 0.1364723 -1.5684903
5.3062758 0.1562683 -1.511749
5.3286195 0.31569311 -1.4131711
5.4404292 -0.36468479 -1.18415
5.326848 0.50213653 -1.2644995
5.4451203 -0.1695285 -1.0951089
5.3322825 0.50658941 -1.2555275
5.295105 0.66524911 -1.284573
5.6639199 -0.8052696 -0.57821381
5.5209637 0.26394719 -0.4830614
5.5751324 0.2509397 -0.38967419
1.6484513 0.48858601 1.3414805
1.5426484 0.42838889 1.4834671
3.6554716 0.1392165 0.85070568
3.5243268 -1.000788 0.32656369
1.4542763 0.20735881 2.0717354
1.4748368 0.36116001 1.6335508
3.9795914 0.85305339 0.56606531
4.0453458 0.83179742 0.54394227
2.7891922 0.57760662 1.2198874
4.5987525 0.99657822 0.080778398
4.2467647 0.90434688 0.4078179
4.2621932 0.90855223 0.36170721
1.8170146 0.46554691 1.4418541
4.5890288 1.0134829 0.13910811
4.3826847 0.91371602 0.3159382
4.3855844 0.91208768 0.37262669
4.5860853 1.0128709 0.1237806
4.3539124 0.90616661 0.36882901
4.6208091 1.0077617 0.16795211
4.9269691 1.0317814 -0.1002276
3.5154147 -0.99504858 0.31460959
2.6725907 0.63800472 1.1091148
4.7201538 0.9902041 0.1756289
4.610085 0.93676507 0.3096953
5.6523519 -0.1173836 -0.2477001
4.3906379 0.57835162 1.273711
1.3933709 0.3077457 1.7999928
1.8521465 -1.5239592 1.8312014
4.4611678 0.96803021 0.3106319
2.9097383 0.62778533 1.1112015
4.0373139 0.8528074 0.53511149
2.8471911 0.64233178 1.0583588
1.312405 0.4277052 1.5167683
3.9945483 0.85434759 0.56465769
4.1891131 0.88605702 0.4376981
2.9623687 0.6422531 1.0990698
2.4375389 0.49029359 1.4101839
4.0334425 0.85159838 0.54086632
0.66534781 0.45537731 1.4317547
2.3983121 0.48772359 1.4269
3.7034044 0.81290227 0.52024323
2.4208548 0.56080621 1.2170471
3.0045195 0.68583602 1.0032946
4.9002919 1.0791618 0.0081837
4.7334657 1.0379127 0.1143518
1.9681917 0.52845532 1.2789645
4.5948811 0.99457568 0.218676
2.8577681 0.63687038 1.078398
4.2590842 0.91245759 0.4127214
3.6450832 0.86087292 0.52766943
4.7167864 1.0257624 0.1607925
4.8279185 1.0446054 0.13153151
2.8453236 0.63554472 1.0504795
4.547452 0.90466011 0.19597089
4.4212432 0.9173243 0.3233054
4.8130388 1.0382876 0.1216798
4.6207819 0.9999398 0.25804839
2.5707209 0.52835071 1.2715718
4.2095451 0.87109798 0.47104719
5.553328 0.78336447 -0.20704781
4.2602854 0.90440261 0.42569861
4.3173237 0.90284228 0.4412623
2.4221103 0.50646412 1.3554614
4.3214602 0.90596497 0.45747861
3.8871949 0.80143487 0.77809948
5.5641322 0.90362722 -0.2201349
2.4089921 0.56999707 1.2823194
2.8976343 0.58719242 1.1354302
1.8634729 -1.4965355 1.8402919
1.4344752 0.43584219 1.5378613
4.5674419 0.9713589 0.3632797
4.6540055 0.97042781 0.30306229
5.619102 0.28648341 -0.15908299
4.103014 0.84719467 0.57137549
2.5783091 0.52928913 1.2731597
1.2135047 0.43959719 1.4520148
5.6666646 0.48383299 -0.1698273
2.9619648 0.61510831 1.1579652
4.9076071 1.0211248 0.1965825
1.4057599 0.35846609 1.6677893
3.5932145 0.66300422 1.0163002
4.0175676 0.7989381 0.71996921
2.8694687 0.58385241 1.1846328
5.7699733 -0.22852109 -0.0051179999
1.8142952 0.46210691 1.4396257
3.7159805 0.68186653 0.90911669
5.7658777 -0.230085 -0.0026086001
3.7016985 0.70980608 0.93456018
4.7246737 0.9029972 0.50579172
4.7105646 0.89330292 0.49838901
4.7213082 0.8929314 0.52503723
2.6988583 0.64983702 1.028028
0.89302307 0.4784463 1.328354
1.5289253 0.43510351 1.5052261
1.6945248 0.50505441 1.2587029
1.5066416 0.219914 2.0332613
5.7155375 0.29998621 0.26322711
1.6378516 0.4916774 1.3677275
5.7062573 0.29572329 0.25642401
5.6383109 1.03224 0.14227121
5.6155725 0.95525402 0.31701201
4.0162334 0.64505923 1.0918446
5.7087846 0.12740131 0.2818535
4.0930667 0.88926822 0.425138
4.8381486 -1.1685379 0.83881217
5.7711911 0.033916399 0.42573819
5.3621521 -1.1027297 0.69881767
1.8869339 -1.7184937 1.7173934
5.742732 0.46667781 0.40236729
5.8004808 -0.1329713 0.46957129
5.4272661 -1.0032874 0.83189851
5.687181 0.86091661 0.46106949
5.801693 -1.1437291 0.57322657
4.8747692 -0.92595828 0.93091363
5.9569178 -0.8539145 0.66104728
2.281157 0.54969132 1.224856
2.2852719 0.55186719 1.2448481
5.316781 0.78487939 0.64696532
2.5247133 0.5631476 1.1256442
2.390954 0.51164758 1.3919731
1.3145952 0.42370629 1.4965887
3.8201776 0.80939388 0.72504622
4.2651424 0.88196629 0.47908089
1.497967 0.3879776 1.3632772
3.8757122 0.80072612 0.72953928
4.5236187 0.95611578 0.37463281
1.5447589 0.4257552 1.4783142
4.1213269 0.8605293 0.60180873
3.8609211 0.8110432 0.77449077
2.6693041 0.62026209 1.1325114
4.081636 0.84222072 0.62297851
0.3148292 0.44035771 1.3973933
3.925359 0.79946083 0.75634789
4.0238247 0.80035311 0.712201
3.5355244 0.58368361 1.0085268
3.6699557 0.13686541 0.87130058
3.9843988 0.76582521 0.80376762
2.6623769 -0.22013099 1.0355445
3.7002602 0.1444235 0.91526568
3.598901 0.66605532 1.0153781
2.2228122 0.54962498 1.2304964
4.7125597 0.88461781 0.51110882
1.866951 -0.2453229 2.2023602
2.5765328 -0.3076188 1.9040682
1.871462 0.1085855 2.1683598
5.6041393 0.95132953 0.40308139
1.6333402 0.50020587 1.3797785
4.7171698 -1.2451886 0.76843739
4.8753066 -1.2413204 0.93266249
4.8242664 -1.1662509 0.82761198
4.8301692 -1.170746 0.82908148
5.9382229 -0.78041118 0.68435138
6.001543 -0.45078379 0.78466421
5.9652305 -0.48552099 0.7818681
4.534956 -0.354303 1.6716132
4.570725 -0.27183801 1.6721661
5.8799481 0.33639121 1.0849285
5.9071236 0.34472051 1.1121175
5.8845267 -1.0151279 0.37595999
5.688046 0.4561753 0.3626588
4.8850665 -1.0841533 0.8761245
1.8654921 0.093448304 2.2726846
0.6040324 0.52649868 1.1998583
4.833106 -1.2132947 0.83421868
5.6986699 0.78837627 0.49490589
1.2612771 0.41182151 1.3810912
4.8793125 -0.93106401 0.94459617
2.2960598 0.087360598 2.1815431
2.2253964 0.57497829 1.1833216
1.5419196 0.42468899 1.4784777
4.8325152 -0.63432252 1.0649247
0.3098304 0.38766089 1.5343003
4.8640642 -0.80052727 1.2154053
1.2184632 0.25188059 1.9827062
5.9129691 -1.1430105 0.65400529
0.69144708 0.4440695 1.394433
2.2930593 0.55642349 1.2722539
4.7067313 -0.34094149 1.4111929
4.8788028 -0.56411648 1.3278562
5.6882215 -0.56745517 0.83733457
4.8799195 -0.64036107 1.2838136
5.5923691 -1.16673 1.3566579
5.0010552 -0.82947731 1.3401144
1.5304472 0.37142801 1.6222721
0.3990328 0.54449439 1.1687599
5.9023304 0.55141199 1.0663011
1.3124179 0.33044711 1.7490584
5.3499513 -1.2413943 1.0204707
4.8780203 0.47713971 1.462314
5.5180955 -0.88001758 1.3581254
0.47881231 0.50578302 1.2692071
4.7575307 0.32174489 1.6661732
4.8015647 -0.3462851 1.1225326
1.988589 0.53800517 1.296093
1.5083166 0.041228399 2.308496
4.8728137 -0.79963249 1.2230651
4.9081345 -0.813658 1.2582693
1.6199346 0.052825999 2.2894664
1.6079053 -0.3607884 2.27753
1.921648 -0.66498673 2.168395
0.45962521 0.49227801 1.2453126
1.907468 -0.3199698 2.2501664
1.3698121 0.47440031 1.3900667
4.6147532 -0.21327481 1.5817332
1.5774887 0.49353671 1.3548933
4.7311788 0.2073936 1.3899021
1.2134296 0.47531691 1.296136
1.565552 0.2319147 1.9004064
0.792853 0.3891201 1.6256583
0.8045364 0.37920991 1.6051542
0.31802961 0.4389253 1.3890827
0.92491072 0.32090211 1.7556019
0.92429233 0.31592929 1.734091
1.3943545 0.370175 1.7038138
1.3213593 0.32286361 1.73051
0.2185792 0.3180311 1.7229785
0.62483341 0.330726 1.7450439
0.78884357 0.30928439 1.7676686
0.78186142 0.31323531 1.7754123
0.3482168 0.42936239 1.4483744
0.92337108 0.31776109 1.7447438
1.0161275 0.32269949 1.8192447
0.54549718 0.28836229 1.8086712
0.78846788 0.30590889 1.753585
1.1766617 0.31762889 1.7292595
0.15505239 0.29943699 1.7512637
0.1558979 0.33614621 1.6948454
1.2704579 0.59945941 1.0440619
2.7110691 -0.5956881 1.9675416
0.76435798 0.31822059 1.7580289
1.1821042 0.2947194 1.8089476
0.76295471 0.29943371 1.8456886
1.8256309 0.051528499 2.2336035
1.9293902 0.28418171 1.9243511
4.6635294 0.34340069 1.8142662
-2.0607662 0.6995061 0.62287849
-1.0716336 -0.20362499 2.7577622
-0.55161953 -1.0407579 2.6870444
-1.0412154 -0.25494659 2.7524498
-2.6410587 -0.52900308 -0.0105813
-2.707866 -0.70229387 -0.074670501
-2.5869288 -0.81417251 -0.085375004
2.7051055 -0.59723741 1.9773737
0.61348963 0.33384621 1.696058
1.7479624 0.2839599 1.9024792
2.7131221 -0.59593242 1.9534905
1.5606523 0.2486981 1.9691107
0.95520842 0.25320849 1.8924793
0.97467148 0.2398404 1.9565775
1.5640965 0.2347054 1.8860337
0.94816929 0.25495461 1.914142
2.1155057 -0.97925568 2.0078256
1.4685872 0.2049235 2.027245
0.97113341 0.16664679 2.1089959
2.7500706 -0.2329369 2.1414859
1.8081212 -0.70171922 2.1939108
0.99339461 -1.5787823 2.0376215
0.95931238 0.1644154 2.1051524
1.0050565 -1.894733 1.9436604
1.0297191 -1.5287219 1.9555682
0.95276529 -1.6196576 2.1440802
1.0121089 0.1111701 2.2135322
2.7331512 -0.049457401 2.176841
2.3009593 0.085396104 2.2873764
1.0321429 0.1082278 2.1718447
1.821924 -0.227584 2.2214143
1.0801717 0.1312798 2.2141376
-0.0214624 0.037079498 2.3393698
1.4608992 -0.0094891004 2.3409758
1.8138949 -0.097315103 2.2347126
5.3830695 -0.078757897 -1.505486
0.97432292 -0.72531122 2.3440335
0.3361325 0.3775728 1.5081543
0.98291481 0.23634329 1.9353597
0.53445899 0.307037 1.7688422
1.1658082 0.19884551 2.0532274
0.23165441 0.37170669 1.5345985
0.75088203 0.28011069 1.8534766
0.61047792 0.2641286 1.7143881
0.67744392 0.45055991 1.4152367
1.3894054 -0.43084759 2.3291147
1.4369426 -0.74931782 2.2298591
-0.0240437 0.0259111 2.3653054
-0.047475599 0.0285965 2.4129701
0.96332222 -0.71444023 2.3560462
1.1986994 0.19041701 2.1331301
1.4280523 0.077602603 2.3342292
0.9290694 0.0293219 2.4484661
-0.022885 0.015745999 2.3987689
0.032988898 0.0282005 2.3776619
0.91233969 -0.088806398 2.2955348
0.29933491 -0.93534452 2.5220459
1.4775597 0.2070782 2.0168324
0.62330878 0.32954341 1.7352931
0.2113999 0.3418816 1.6043415
0.62089562 0.3194243 1.7400452
1.8376201 -0.21189231 2.1891844
0.17946669 0.3480913 1.6361974
1.8941238 -0.66100478 2.1791487
1.8051993 0.0144832 2.2523105
0.92547971 0.2211915 1.9571217
1.0710626 0.2135326 2.0142982
0.66954082 0.1771079 2.0742536
1.4740887 0.0066646999 2.3114398
-1.9752667 -1.3169724 1.388544
0.1165296 0.24305379 1.8951132
0.88742697 -0.64266998 2.1926343
0.4155775 0.19738621 2.038326
0.96494299 0.42354941 1.4972448
0.0091517996 0.1581526 2.0862272
-2.2166989 0.45324299 0.2197445
-2.5374713 -0.82073039 -0.080866098
-2.4253273 0.90585232 0.1218347
-2.5582981 -0.034480199 0.091137499
-2.2916937 0.47969311 0.2249011
-2.6820083 -0.057858899 0.1081745
-1.0043321 -0.55792427 2.7737327
-2.7018347 0.43979591 0.1477621
-2.6675165 -0.0667817 0.1017213
-2.583636 -0.3223255 0.074157603
-2.2899969 -0.80840081 0.86307871
-2.0044794 -1.3542371 1.4436147
-2.3068366 -0.43004969 0.92678177
-2.4137046 0.67864871 0.30473021
-2.3560901 0.73213762 0.32962379
-2.2525735 -1.1701874 1.1056211
-2.4410439 -0.423087 0.3030411
-2.7761908 -0.031883098 0.1017133
-2.3795748 -0.41662031 0.96039659
-2.5738313 -0.1513302 0.252621
-2.4367685 -0.32432359 0.73720008
-2.5766716 -0.0234953 0.091096699
-2.5755889 -0.022449501 0.091948099
-2.3533599 0.77101427 0.32844159
-1.0629742 -0.1849325 2.7342327
-2.3452535 0.76843488 0.33212441
-1.0545027 -0.1492388 2.7589536
-2.2473209 0.6576438 0.56891447
-1.3376929 0.1657016 1.9845694
-2.0046849 -1.1835315 1.2317818
-2.5975711 -0.096172102 0.14183711
-3.0609546 -0.26295921 0.036405899
-2.790185 0.80641502 0.0251438
-2.4164722 -0.82609671 0.354693
-2.5758965 -0.0231109 0.0907114
-2.2752872 0.6720888 0.56779939
-2.3682826 0.78443241 0.3288492
-2.2571547 -0.31703481 0.56087792
-2.3406484 -0.36543381 0.73005217
-2.7245896 -0.069513299 0.1380021
-2.5819576 -0.28498861 0.68390888
-2.4916413 -0.032740701 0.101251
-2.2112601 -1.062598 1.076516
-2.6939507 -0.064219996 0.14105541
-2.5867178 -0.1369978 0.26434469
-2.0094459 -1.9272391 1.901884
-2.0799084 -1.5772064 1.7582045
-2.2182302 -0.7766782 1.2067963
-1.0531222 -0.142802 2.7676606
-1.0142421 -0.68843371 2.7586563
0.8205198 0.1912538 2.0836506
0.19742981 0.3375676 1.6203392
0.48778409 0.3206861 1.738567
0.79974473 0.1992348 2.037262
1.0772537 0.1318678 2.2221105
-1.0284331 -0.31528211 2.7304404
-1.0652791 0.4694373 1.3267884
0.88465297 -0.84155941 2.24893
-1.0203024 0.44629729 1.3049967
0.79006177 0.1476589 2.1834302
0.65062618 0.1872519 2.0034051
0.84382331 0.056356002 2.2290485
0.157354 0.2057061 1.9284955
0.96900392 -0.72780663 2.3532476
-1.0194871 0.4009015 1.361367
-0.98510402 0.3862586 1.4568061
-0.95189309 0.37118411 1.4340202
0.97664303 -0.4513281 2.4282579
-0.3173525 0.30985969 1.7098882
-0.98308229 0.43199211 1.3284132
0.980838 -0.44397151 2.4293623
-1.027205 0.44950181 1.301276
0.6302315 0.1007953 2.3504102
-0.87203062 0.34759951 1.5501591
-0.88112128 0.34239441 1.5558301
-0.84806699 0.30539259 1.6341778
-0.76911628 0.289473 1.6956278
0.0532928 0.1757995 1.9793365
-0.67918819 0.25386789 1.7831849
-2.0981476 -1.3340963 1.4305668
-1.9824924 -1.3360808 1.3661575
-1.9050537 -1.3149599 1.3280535
-0.88471931 0.29604471 1.6993003
2.7870901 1.5347722 -1.1062173
1.4658304 -0.31326959 2.2827029
2.0767725 0.72866642 0.83125412
2.6172035 1.2509822 -0.48341709
2.5042577 1.2012755 -0.4997704
2.7338831 1.6520443 -1.1808501
1.6754379 0.72599488 -0.1434339
2.2002542 0.64296669 1.0462667
2.6389637 -0.74394399 0.95897591
2.7087233 1.3041432 -0.43237701
1.4677184 0.68107557 -0.059386399
2.8011262 1.5391736 -1.0883596
2.5811055 1.2178358 -0.35208231
2.6259675 1.2481041 -0.40995279
1.5486133 0.43200371 1.4913142
1.6580447 0.71446967 -0.1302835
2.6255066 1.2500253 -0.40939859
1.8793653 0.613029 0.18242601
1.4730492 0.68432862 -0.057460599
3.3885984 1.5209624 -1.0704401
2.9859016 1.5834085 -0.60419953
2.6302886 -0.73383278 0.94876969
1.9118172 -0.51282269 2.2061267
2.752991 -1.7028828 1.5806293
2.6064932 1.3492143 -0.65190369
3.3375471 1.4962769 -1.0701227
1.4723303 0.68377179 -0.067734599
2.7253423 -1.2040772 0.72752368
1.7156713 0.71288621 -0.1419505
2.8550394 1.1786921 -0.2133425
3.3494797 1.2066617 -0.35620981
3.4029906 1.5231953 -1.0652584
2.4770243 0.73879999 0.86467761
3.6042511 1.4308156 -0.8610881
0.096419103 -0.95090002 2.5349026
-0.1091179 0.047430601 2.3450384
-2.1695492 -0.72977769 1.6772258
-2.0200996 -0.76337308 1.7193271
-0.82779127 -1.7826878 2.4589844
-0.91800177 -1.8588296 2.525919
-2.0827718 -1.1013947 1.7469386
-2.0456898 -1.6628474 1.7389381
-2.096077 -1.0941575 1.7463548
-0.90859032 -1.8399248 2.5375507
-2.1238759 -1.5579944 1.7817501
-2.0780103 -1.5841026 1.7506661
-2.0685024 -1.5461355 1.7518185
-2.0719614 -1.2274327 1.9230393
-0.87141228 -1.0323266 2.66662
-1.6329983 -0.19457491 1.9461799
-1.0579029 -0.9761849 2.7650959
-1.7363211 -0.0821632 2.1419291
-2.0467248 -0.1772816 2.1726272
-1.9614424 -0.34251341 2.0683677
-2.070194 -0.0508288 2.2550669
-2.0692697 -1.2250581 1.9206655
-2.0163634 -0.90265721 2.0463059
-2.0793936 -0.90842593 2.0720291
-2.0738537 -1.1530148 1.9517486
-2.0898652 -0.34170121 2.1332469
-2.0289731 -0.066747002 2.2228453
-1.9608572 -0.3674334 2.0753539
-2.1452458 -0.3576571 2.2025235
-2.0614512 -0.34944999 2.1196043
-2.0390184 -0.1795215 2.1760333
-2.030112 -0.18303411 2.1677625
-1.8587472 -0.039962199 2.1604602
-2.005008 -0.3513172 2.0909951
-2.1098263 -0.2219501 2.2817965
-0.72414702 0.2780275 1.7036523
-2.0042748 -1.2977337 1.6080172
0.1298348 0.26599371 1.8245921
0.073339097 0.21919399 1.9465252
-0.4179053 0.3530924 1.6439949
-1.0184261 0.47786209 1.0694274
-0.40399629 0.35121289 1.6298811
-0.025096999 0.1509826 2.1273332
-0.99286211 0.43932 1.2893665
-1.1475776 0.53511369 1.0577171
-1.1655154 0.54648018 1.0315645
-1.1278993 0.51966769 1.1148624
-1.1593033 0.55737221 1.031153
-1.0709505 0.48545441 1.2106975
-1.1350011 0.53256333 1.0179148
-1.0896885 0.45215091 1.2414918
-1.1239412 0.46791869 1.2551111
-0.99268991 0.43326941 1.212755
-0.93507463 0.41880009 1.4299756
-0.85693592 0.31392759 1.6327052
-0.039906099 0.0179746 2.4199173
-0.96917218 0.38115951 1.4491154
-0.1550141 0.042096101 2.4202948
-0.1543622 0.040544499 2.4226727
-0.85283363 0.2814475 1.7494711
-0.73301739 0.27516499 1.7067963
-0.72025478 0.26594809 1.7840872
-2.6276622 -0.80259621 -0.088133298
-0.72875381 0.3250128 1.7741675
-0.80125839 0.2481654 1.8587235
-0.80716372 0.2510798 1.8599961
-0.9887833 0.39650249 1.3292608
-2.3744729 -0.42630231 0.94502789
-2.5284667 -0.3620505 0.82062292
-2.386004 -0.3331213 0.7452246
-0.39741141 -1.0904214 2.6961327
-0.35733321 -1.0659895 2.6422966
-0.23455989 -0.99573898 2.5767603
-2.4512794 -0.47504291 0.29521081
-0.2426834 -1.0066077 2.6510503
-1.9307688 -1.509836 1.3689061
-0.039395198 0.086359903 2.3015554
0.21673711 -1.2869803 2.2910898
-0.0041642999 0.079263203 2.3247819
0.55573761 -0.89629072 2.4016173
0.47821319 -0.85748082 2.1625502
-0.051620301 0.026628699 2.3354731
-0.0012354 0.057903599 2.421397
0.99139363 0.55559498 1.1901212
1.2453834 0.49753621 2.0959826
-0.1248306 0.040790901 2.3863113
0.1957584 -0.94058537 2.472497
0.97316092 0.2555652 -0.2605246
-0.1081824 0.0448016 2.4121964
-1.8388045 -0.0612147 2.1177504
-2.4276249 -0.27907199 0.62413949
-2.5154831 -0.4999314 0.99882358
-0.35935321 -1.0140383 2.6177719
-1.8296204 0.48263299 0.92929888
-2.2757802 -0.4513149 0.97946161
-0.88210231 -1.72269 2.5442071
-0.91639948 -1.7472423 2.5655918
-2.3490524 -0.44795069 1.0078365
-0.96014488 -1.878068 2.572823
-2.3165231 -0.44179019 1.0079536
-2.3465123 -0.44196469 1.0111916
-0.87859702 -1.1396097 2.7232518
-0.66227973 -1.0651519 2.6910853
-2.5391848 -0.3560549 0.81491089
-2.4729986 -0.32035461 0.69260442
-0.5389477 -1.0528471 2.8030655
-2.2918701 -0.53535849 1.2829285
-2.1884944 -0.5411517 1.249663
-2.3539143 -0.46077809 1.0452898
-2.3476088 -0.45381629 1.0445944
-0.79203981 -1.016073 2.6724262
-2.1432445 -1.3356559 1.2164074
-0.98337418 -0.95933312 2.6865838
-2.3237343 -1.4045446 1.4718326
-2.0604105 -1.6517434 1.7403665
-2.0551383 -0.60317832 1.3259896
-2.0667717 -1.7214916 1.7175313
-2.1024153 -1.2339699 1.3699235
-2.1726608 -1.0703979 1.8005632
-2.1161129 -0.70544088 1.6509866
-2.0110662 -1.0963166 2.0358872
-2.0678747 -1.2899724 1.9901338
-2.1444468 -0.71087271 1.653934
-2.0403116 -1.1000218 2.0550392
-2.0921803 -1.2904577 2.0038834
-2.0723979 -1.0997506 2.0594044
-2.1968746 -1.331629 1.9317155
-0.96785557 -0.55937028 2.7260721
-2.1504197 -1.1075019 1.7768992
-2.0719581 -1.4284747 1.8270415
-2.0903525 -1.4276934 1.8376851
-2.0662189 -0.77308059 1.8773744
-2.0172231 -0.76841557 1.8577441
-2.0651741 -0.77204078 1.8607314
-1.8433813 0.080450699 2.1429925
-1.8371953 -0.063729398 2.2102873
-2.1028976 -1.3247168 1.9381199
-2.1064022 -0.36283901 2.1723647
-2.1490207 -1.5667231 1.7950889
-2.049206 -0.90156031 2.0558748
-1.7797143 -0.98701382 2.7701697
-2.4818723 -0.25539121 0.51699227
-2.3173566 0.75429398 0.32538441
-2.450382 0.47748169 0.2146354
-2.4142053 0.58737987 0.22073171
-2.406456 0.79779983 0.32155889
-2.3969069 0.70870709 0.340244
-2.6517532 -0.1242318 0.26881781
-2.3333848 0.76849413 0.3247765
0.0152988 0.1118152 2.3136673
-2.6739061 -0.1169147 0.27483401
-2.648277 -0.1276661 0.27510551
-2.0675883 -1.5307868 1.7429076
-2.5814919 0.52420092 0.20069119
-2.3956883 -0.3310681 0.71079111
-2.5980506 -0.1337314 0.2788879
-2.6991451 -0.058763102 0.13587371
-2.0529392 -0.70839578 1.6410513
-2.414176 0.89667469 0.1222644
-2.05231 -1.5876658 1.7702931
-2.4357536 0.91344881 0.1214731
0.54723549 0.1177811 2.2294197
0.035228699 0.1376659 2.1476121
-2.3148479 -0.44157371 1.0103626
-2.2960773 -0.5479964 1.3202869
-2.4908354 -0.27642241 0.63190103
-2.3381205 -0.43395329 1.0047411
-2.2681479 -0.5648824 1.3083098
-1.8628241 -1.5763379 2.6625803
-2.0575743 -1.292001 1.8575202
-2.4892235 -0.2594085 0.57285422
-2.2888782 -0.54512709 1.3110012
-2.4513583 -0.3287679 0.76481628
-2.0785131 -1.0840884 1.9649397
-2.2471299 -0.56683069 1.3485354
-2.2607827 -0.56605548 1.3512561
-1.7361059 0.050824702 2.2731838
-2.5741937 -0.1998504 0.4701308
-2.4435451 -0.33361149 0.79165429
-1.7037348 -0.059057999 2.5306721
-2.3645058 -0.33020589 0.72509301
-2.0910542 -1.1493564 1.956115
-2.3819854 -0.51917338 0.3340072
-2.8090713 0.99023432 -0.1668784
0.21505859 -1.3605558 2.2534041
-2.8937843 1.0262072 -0.22835819
-1.861231 -1.5702652 2.6792786
-2.7027221 0.93889582 -0.0070063998
-1.876021 -1.5826921 2.6864364
-2.7221918 -0.61829323 -0.045908201
-2.7194307 -0.58659011 -0.0366956
-2.301234 0.72681218 0.39471561
-2.0636432 0.70111912 0.62433839
-2.3970075 -0.49558219 0.3445943
-2.5230892 0.53473502 0.199707
-2.3060112 0.74516022 0.3251344
-2.512403 -0.83787578 0.3542788
-2.2016315 0.5521754 0.92322952
-2.4127455 0.89824498 0.12832861
-2.2626972 -0.46595591 0.96792161
-2.447736 0.4907034 0.2073763
-2.4755871 0.48880571 0.2032346
-2.738245 0.456817 0.1154302
-2.2961078 -0.79356951 0.88580447
-2.0193543 -1.5480314 1.7232088
-2.2496672 -0.95174408 1.1344759
-2.7764041 -0.29451749 0.048911501
-2.6482873 0.5596112 0.1959164
-2.4587438 0.337136 0.1676985
-2.3860278 -0.32974491 0.72240257
-1.8280803 -2.1494493 2.4473381
-2.8610268 0.92755377 -0.048055101
-1.8214722 -2.1421082 2.4435167
-2.1824541 -1.5749183 1.8072376
-2.0751069 -1.3404465 1.8580015
-2.6209013 -0.1102281 0.1401163
-2.2236054 -0.3591547 0.72444957
-2.0583315 -1.4374493 1.8200849
-2.5180283 -0.2288795 0.4629682
-2.2710323 -0.55191499 1.3051772
-2.4405503 -0.2824541 0.56842297
-1.6584988 -1.9116297 2.6766224
-2.1370664 -0.72864062 1.7191863
-2.3474226 -0.3534494 0.7762562
-2.0483882 -1.3161223 1.9034442
-2.0552711 -1.0435436 1.984419
-2.2051511 -0.56804031 1.3129648
-2.0136988 -1.0206932 1.9738613
-1.8251275 -1.750391 2.4924014
-1.8351213 -1.8638785 2.5537572
-2.1094253 -0.73158097 1.728559
-2.3299227 -0.47594601 1.1144664
-2.0549548 -1.0483555 1.9652544
-2.1865478 -1.3699108 1.9344665
-2.0514445 -0.98699021 1.9922892
-2.0643091 -0.97295111 2.0255625
-2.0762999 -1.247452 1.9461644
-1.865324 -1.8791653 2.5658977
-2.1383328 -1.3233836 1.9088882
-2.0235555 -1.0824944 1.9330674
-2.0422552 -1.0460033 1.9795974
-2.0892246 -1.1623687 1.9675775
-2.0452819 -0.97325152 2.0195837
-2.0878606 -1.2302736 1.9330113
-2.3060987 -0.47662771 1.1040978
-2.0437045 -1.0040834 2.0573142
-1.8601136 -0.1103283 2.1130395
-2.0497892 -0.8440538 2.0512545
-2.0436847 -1.302747 1.8895278
-2.102715 -1.0580618 2.029845
-2.3184114 -0.48314819 1.1029764
-2.0451179 -1.1520485 1.9503394
-2.3055329 -0.71690983 1.7328284
-2.1520429 -0.36489081 2.2128222
-1.8840301 -1.3297726 2.7650142
-2.0879261 -0.22599021 2.2721322
-1.7837455 -1.0337067 2.8185177
-1.7795027 -1.0423281 2.8272922
-1.8085284 -1.0396906 2.8257787
-1.9043632 -1.2242184 2.8095429
-1.8674222 -1.1105722 2.8787601
-2.3283055 -0.48966759 1.1121926
-1.9384224 -0.0257625 2.3152382
-2.1196241 -0.3717812 2.1950912
-2.0740893 -0.37705249 2.1846964
-1.8485342 -1.1573863 2.835814
-1.7650479 -0.7144959 3.0793359
-1.949322 0.0037835999 2.3690865
-2.6808062 -0.47732159 1.2146006
-0.048266899 0.0749477 2.2832041
0.0348792 0.1361272 2.463016
-2.3878639 -0.26955831 0.53875083
-2.2965262 -0.80564368 0.87119508
-2.2572584 -0.80506521 0.84830761
-0.0028144 0.089835897 2.2498477
1.0572377 0.60502958 1.0844727
0.0011637 0.1098386 2.1970072
0.2045211 0.3460902 1.8337624
1.0210158 0.50993979 1.3166293
0.23554181 -1.3858933 2.306294
0.041606799 0.1060401 2.409337
-2.4249566 0.57643259 0.2293485
-2.0724359 -1.5775667 1.7449611
-2.3555403 -0.27085489 0.50934589
-2.4340591 -0.26926509 0.58707088
0.2217682 0.30890521 1.7043141
-2.3669169 -0.53023207 0.93068439
-2.3660696 -0.41373351 0.9593125
-2.0772445 -1.2808459 1.8863504
-2.3256762 -0.29549491 0.54838502
-2.0716171 -0.98094767 2.0080996
-2.5049591 -0.21725041 0.4649168
-1.8967812 -1.4623797 2.7252901
-2.6926849 0.92326587 -0.0026153999
-2.0045693 -0.65841907 2.1226687
-1.8618995 -1.4842192 2.7253709
-2.0547311 -0.97068542 2.0175622
-2.2397819 -0.57359523 1.3724642
-2.5655944 -0.2361239 0.48441869
-1.8653469 -1.4908749 2.6811857
-2.7714636 0.97346753 -0.0113049
-2.4574821 -0.29296651 0.66528273
-1.8207676 0.081337698 2.09026
-2.7992141 0.97359061 -0.1176123
-2.7497563 0.96991777 -0.0122599
-2.8297606 0.95159447 -0.1683763
-2.79142 0.96941662 -0.1154143
-1.8570359 -1.2813443 2.7821321
-2.8450222 1.0120164 -0.1758465
-2.8015535 0.80508387 0.040287402
-2.9141977 0.85913771 0.0253793
-1.8450831 -1.2755376 2.7705038
-1.8557329 -1.2837547 2.8011308
-2.9022274 0.99572122 -0.1809109
-2.8929837 0.97998542 -0.14798421
-2.902241 1.0320162 -0.2288259
-1.6519463 -0.3422122 3.0972078
-2.8091385 0.93811917 -0.0600424
-2.8824985 0.97695488 -0.1445169
-2.8495204 0.92726612 -0.044887599
-2.772548 0.91657388 -0.054476101
-1.913255 0.0046270001 2.3549635
-2.7953074 0.93024981 -0.1326708
